1715.466675 -470.799988 -123.221466 0.000000 -1.464967 -0.000311 
1864.965332 -470.800476 -75.695351 0.000043 -0.915673 0.000043 
1215.395630 -470.800781 63.596664 0.000031 -1.704314 0.000160 
2943.139893 -470.800018 72.761093 -0.000000 -0.134725 0.000004 
1415.277710 -470.801025 -113.056549 0.000065 -1.041635 0.000060 
1390.458862 -470.800446 -75.872459 0.000062 -0.990951 0.000057 
3121.751465 -470.795868 -74.048622 0.000377 -1.140343 0.000032 
1914.405518 -470.799988 -123.239845 0.000000 -0.223186 -0.000043 
1715.466675 -470.799988 72.221466 0.000000 -1.528534 0.000208 
3190.064941 -470.801392 -116.514351 -0.000054 -2.227219 -0.000160 
2515.418945 -470.799957 -112.943077 0.000031 -1.823745 -0.000013 
2534.135742 -470.800140 -45.209335 -0.000005 -0.120630 0.000006 
2338.997803 -470.799988 64.871796 0.000001 -2.141068 -0.000024 
3114.061768 -470.799591 -115.714119 -0.000033 -1.372127 -0.000050 
3107.115479 -470.800812 -77.753845 -0.000128 -2.226195 0.000054 
2514.405518 -470.799988 -123.239845 0.000024 -1.404451 0.000002 
2439.306396 -470.800262 -25.415209 -0.000003 -0.587680 -0.000000 
2380.955078 -470.799957 64.223083 -0.000009 -1.649889 -0.000000 
2464.405518 -470.799988 -123.239845 0.000000 -0.862280 -0.000053 
2473.822998 -470.800659 -112.250343 0.000000 -2.014861 -0.000123 
3044.089600 -470.799988 60.496552 0.000000 -1.067730 0.000001 
2988.783447 -470.800079 -75.516968 -0.000000 -0.072220 0.000000 
1665.466675 -470.799988 72.221466 0.000000 -1.492414 0.000326 
2456.667969 -470.799957 -112.818901 -0.000011 -0.852917 -0.000005 
1315.466675 -470.799988 -123.221466 -0.000279 -1.623815 0.000912 
1311.512207 -470.793213 -112.365189 -0.000218 -1.264613 0.000710 
1357.534424 -470.800018 -110.378754 -0.000000 -1.765171 -0.000004 
2931.744873 -470.800049 -23.472740 -0.000234 -0.343349 -0.000085 
2240.466553 -470.799988 72.221466 0.000312 -1.357742 -0.000260 
2240.211914 -470.797882 60.904652 0.000360 -1.565029 -0.000299 
2291.171143 -470.786011 60.052021 0.000000 -1.277410 -0.001467 
2290.466553 -470.799988 72.221466 0.000000 -3.120407 0.000000 
2993.425293 -470.800293 63.852051 -0.000001 -0.581670 -0.000001 
1315.232544 -470.800079 -75.417183 0.000001 -0.852899 0.000000 
1813.880737 -470.800537 -113.193718 -0.000022 -1.569944 0.000008 
2864.936279 -470.799957 23.337502 0.000006 -0.451925 -0.000017 
2992.561523 -470.806519 -112.871933 0.000318 -1.703744 0.000326 
2389.274414 -470.804810 -112.889954 0.000110 -1.525232 0.000216 
1140.917236 -470.799835 23.677347 -0.000072 -0.856024 -0.000080 
1563.538818 -470.800720 61.075031 0.000007 -1.394996 0.000090 
2913.442627 -470.799347 24.030621 0.000025 -1.594926 -0.000353 
3040.461426 -470.797882 -114.412491 0.000053 -2.853855 0.000532 
2914.499023 -470.793243 -3.453209 0.000070 -0.513152 0.000002 
2393.082520 -470.800018 -122.678322 0.000130 -1.787989 -0.000825 
1616.467529 -470.800446 61.315186 -0.000025 -1.533624 -0.000014 
1264.405518 -470.799988 -123.239845 0.000209 -1.457931 0.000004 
2390.960205 -470.799316 -75.040367 0.000002 -0.557040 0.000000 
2780.890625 -470.775604 66.495224 -0.000485 -0.337980 -0.003816 
2752.698730 -470.799988 72.239845 0.000000 -0.043034 0.000000 
2790.466553 -470.799988 72.221466 0.000000 -3.094688 0.000000 
1714.584473 -470.800079 -76.208305 0.000016 -1.582651 0.000003 
1714.365601 -470.799866 26.292749 0.000023 -1.088713 -0.000004 
2140.466553 -470.799988 72.221466 0.000018 -1.461483 0.000110 
2189.405518 -470.799988 72.239845 -0.000000 -1.424836 0.000035 
1263.096191 -470.800140 -111.805511 0.000006 -0.232716 -0.000026 
2762.018066 -470.719147 63.894070 -0.001167 -0.387658 0.000051 
2315.903076 -470.799927 -112.648666 -0.000031 -0.467786 0.000069 
1664.887207 -470.800568 -76.903603 0.000006 -0.628591 0.000042 
1014.669434 -470.800751 64.171478 0.000002 -0.119584 -0.000011 
2745.432861 -470.799683 62.946102 0.000009 -0.325837 0.000019 
2261.692383 -470.801270 -70.829269 0.000208 -2.069358 0.000048 
1590.220825 -470.799805 -25.282227 -0.000016 -0.977465 0.000002 
2389.405518 -470.799988 -123.239845 -0.000096 -1.415022 -0.000660 
2939.162842 -470.801300 -113.645660 -0.000020 -1.192256 0.000016 
2867.115967 -470.800110 -113.426323 0.000002 -0.698810 -0.000000 
1664.465698 -470.800903 24.545361 -0.000012 -0.983868 -0.000003 
1212.761353 -470.801331 -111.932762 0.000039 -1.148170 0.000095 
2943.433350 -470.800018 -122.900589 0.000002 -1.145511 -0.000158 
2265.341064 -470.799835 -25.277029 0.000015 -1.552736 0.000169 
2188.883301 -470.800507 -24.664701 0.000045 -0.452079 -0.000013 
2264.836426 -470.794373 24.924870 0.000155 -1.549027 -0.000045 
1714.242676 -470.802429 -111.738213 -0.000059 -0.636779 -0.000050 
2669.709473 -470.800720 61.375217 0.000002 -1.917120 0.000127 
2713.923828 -470.800629 62.137295 0.000000 -0.227423 0.000015 
2790.676758 -470.799683 -76.153534 -0.000002 -0.292117 0.000001 
2273.150146 -470.800293 -78.311325 -0.000021 -0.473753 0.000000 
1590.332642 -470.799683 24.437294 0.000014 -1.566247 0.000004 
2813.086914 -470.801697 -112.382156 0.000028 -0.960894 0.000002 
1462.821289 -470.799927 62.747406 0.000078 -0.599128 0.000111 
1516.105103 -470.793427 60.624149 0.000203 -1.569873 0.000291 
2788.580566 -470.799988 57.091827 -0.000009 -1.447014 0.000007 
1140.299805 -470.800812 -75.472916 0.000060 -0.831478 -0.000089 
1586.226440 -470.799622 -74.355026 -0.000030 -1.190934 -0.000472 
2040.466675 -470.799988 72.221466 -0.000006 -1.261915 0.000047 
2138.999756 -470.800903 60.326168 0.000000 -1.573344 0.000121 
1090.254028 -470.799988 -76.738319 0.000014 -1.104993 0.000008 
1041.171997 -470.799866 25.675516 0.000006 -0.459626 0.000003 
2665.488037 -470.799988 72.470543 0.000000 -3.109599 0.000000 
2656.541992 -470.800110 66.088982 -0.000000 -2.429425 0.000047 
1623.246826 -470.800201 -116.541809 -0.000359 -1.794683 0.000361 
939.206665 -470.799988 24.270554 0.000001 -0.472604 -0.000010 
2753.371826 -470.800415 -75.990189 -0.000006 -1.517402 0.000008 
1139.405518 -470.799988 -123.239845 0.000000 -0.161844 -0.000001 
1511.446411 -470.798248 -32.998943 0.000095 -0.563255 -0.000026 
1493.628906 -470.802734 -0.983785 0.000328 -1.940072 -0.000090 
1039.881958 -470.800629 -75.786598 0.000001 -0.801191 0.000006 
1665.290894 -470.797791 -112.824036 0.000054 -1.397801 0.000290 
2113.929443 -470.799561 -76.220871 -0.000011 -1.070228 -0.000003 
2189.048340 -470.800262 -114.162598 -0.000012 -1.101242 -0.000003 
2013.637573 -470.799622 27.288290 -0.000004 -0.899906 -0.000017 
2114.649902 -470.799988 24.781256 -0.000006 -1.588477 -0.000007 
889.375610 -470.800201 23.757795 0.000003 -0.673005 -0.000028 
939.006409 -470.801636 64.163460 0.000004 -0.892522 -0.000037 
1594.621582 -470.790649 -97.535217 0.000758 -1.750262 -0.000403 
2717.427490 -470.799988 -122.307930 -0.000031 -1.944896 -0.000035 
2714.477051 -470.800262 -76.133514 -0.000018 -1.261367 -0.000010 
1513.833252 -470.799377 -77.098404 -0.000002 -0.558158 -0.000002 
2589.798584 -470.799316 25.178825 -0.000035 -1.708168 0.000011 
2089.405518 -470.799988 -123.239845 0.000006 -1.297828 -0.000103 
1614.405518 -470.799988 -123.239845 0.000000 -0.131191 -0.000006 
1091.709961 -470.800018 -115.452507 -0.000005 -0.156168 0.000051 
1415.466675 -470.799988 72.221466 0.000000 -1.309183 -0.002401 
1365.466675 -470.799988 72.221466 0.000511 -1.395715 -0.000028 
1476.451660 -470.799774 -46.778980 0.000035 -1.056588 0.000029 
1089.405518 -470.799988 -123.239845 0.000004 -1.857308 -0.000008 
1963.830811 -470.799866 61.474846 0.000000 -1.613036 -0.000018 
1965.466675 -470.799988 72.221466 0.000000 -1.419735 -0.000016 
797.616333 -470.799988 91.699997 0.000000 -0.001337 0.000000 
1315.466675 -470.799988 72.221466 0.000000 -0.037597 0.000000 
1464.727661 -470.800323 72.972404 0.000045 -3.127951 0.001652 
1514.802124 -470.799988 72.250000 0.000000 -0.012691 0.000007 
1615.466675 -470.799988 72.221466 0.000000 -0.023811 0.000000 
888.408020 -470.801636 63.452229 -0.000002 -2.825903 0.000158 
1265.466675 -470.799988 72.221466 0.000000 -0.041889 0.000000 
2539.991699 -470.798828 23.572002 -0.000001 -1.714225 -0.000060 
2490.466553 -470.799988 72.221466 0.000000 -0.739356 0.000018 
2662.283936 -470.802399 -111.489906 -0.000013 -0.883988 0.000073 
1412.904541 -470.782440 62.652252 0.000363 -1.012828 0.000240 
2588.302734 -470.799988 -48.080029 0.000005 -1.210506 -0.000004 
1869.025757 -470.800720 60.460579 -0.000318 -1.747773 -0.000568 
1855.604492 -470.799805 65.163780 -0.000189 -1.036623 -0.000337 
873.252747 -470.799866 -5.199786 -0.000014 -1.499709 -0.000010 
2667.291260 -470.799988 -123.744698 0.000072 -1.717570 -0.000308 
2712.427734 -470.800079 -112.645187 0.000011 -0.264161 -0.000047 
-386.738831 -380.802856 65.689285 -0.000122 -2.215033 0.000332 
-908.220032 -380.802948 -112.771362 0.000037 -0.950951 0.000088 
-476.608063 -380.799988 61.490108 -0.000018 -2.177014 -0.000015 
-1810.198120 -380.800507 -114.939095 0.000003 -2.003102 0.000019 
-910.594482 -380.799988 -123.239845 0.000000 -1.347751 -0.000381 
-1011.090698 -380.799591 -75.076027 -0.000004 -1.789106 -0.000011 
-434.884186 -380.800354 64.714951 -0.000009 -0.985590 0.000004 
-557.979431 -380.801453 50.029408 0.000037 -0.969986 -0.000071 
-384.987305 -380.800110 -26.637123 0.000039 -0.143475 0.000006 
-1958.147461 -380.815063 -38.034851 0.000507 -1.656481 -0.000685 
-1884.829590 -380.800262 -76.697243 -0.000005 -1.044107 -0.000008 
-958.288513 -380.801270 -112.721649 -0.000101 -0.594788 -0.000115 
-607.648926 -380.800079 72.814323 -0.000017 -1.883507 0.000106 
-1010.087952 -380.792755 -111.448151 0.000000 -1.379839 0.000846 
-434.958893 -380.800415 -114.781754 0.000002 -1.029821 0.000003 
-485.247314 -380.800262 -25.731625 0.000002 -1.047690 0.000003 
-1041.533569 -380.799988 65.758530 0.000000 -2.314940 0.000000 
-1205.066162 -380.799988 69.280975 0.000000 -2.542203 0.000000 
-1111.134888 -380.800507 25.308889 0.000004 -0.710539 -0.000002 
-1960.057495 -380.799896 -76.148979 -0.000006 -1.231126 -0.000010 
-583.226013 -380.800110 23.983540 -0.000027 -1.455530 -0.000049 
-384.832428 -380.803467 -114.849365 -0.000129 -2.115466 -0.000342 
-534.132202 -380.797180 -28.105892 0.000026 -0.333140 -0.000010 
-532.130188 -380.798706 26.101505 0.000177 -2.280699 -0.000071 
-2059.406006 -380.800262 -26.829290 0.000030 -1.068048 -0.000017 
-2010.586426 -380.800293 64.083000 0.000048 -1.095135 -0.000026 
-1061.033081 -380.799774 -25.620300 0.000008 -0.872297 0.000028 
-1135.952637 -380.800476 -24.892138 -0.000028 -0.164874 -0.000011 
-2060.508545 -380.802490 64.938934 -0.000000 -1.587688 -0.000039 
-1010.594482 -380.799988 -123.239845 0.000177 -1.364292 0.000829 
-2010.718994 -380.797546 -73.149612 0.000024 -0.860110 -0.000025 
-2008.384766 -380.798828 -26.321945 0.000043 -1.511047 -0.000043 
-1057.542725 -380.798798 -111.280258 0.000000 -1.571203 0.000156 
-1119.316406 -380.800140 -73.678139 -0.000022 -0.731380 -0.000012 
-1934.810303 -380.800720 64.196198 -0.000001 -0.110900 -0.000003 
-2108.859863 -380.802490 65.174805 0.000001 -2.812051 0.000269 
-1211.690308 -380.800568 58.662693 -0.000023 -2.127692 -0.000006 
-484.728333 -380.799988 -123.186951 -0.000001 -0.332956 -0.000009 
-2154.861084 -380.799835 25.477654 0.000207 -1.242917 0.000946 
-1106.240723 -380.800018 -122.472382 0.000038 -1.314023 -0.000020 
-1105.781738 -380.800232 -107.608269 0.000044 -1.525691 -0.000023 
-2160.599365 -380.771332 64.199646 0.003550 -2.179443 0.000904 
-2185.197754 -380.799988 91.699997 0.000786 -0.482571 0.000200 
-710.073914 -380.799896 61.890244 -0.000003 -0.266825 -0.000007 
-1944.669556 -380.799622 -120.727226 0.000003 -0.619502 0.000031 
-584.781372 -380.797607 -25.209015 0.000168 -0.748578 0.000148 
-2060.226318 -380.801575 -76.220772 0.000085 -1.053264 0.000017 
-1210.921265 -380.800079 -75.988441 0.000021 -0.584679 -0.000015 
-1165.956543 -380.799194 -47.541931 0.000066 -1.865610 -0.000047 
-1178.210083 -380.800751 -3.139102 0.000025 -0.691304 -0.000017 
-2158.150879 -380.801575 -22.542202 0.000010 -0.282241 0.000010 
-557.450867 -380.803070 -112.968788 0.000063 -1.090952 0.000145 
-537.546753 -380.796906 -75.234657 0.000082 -1.412462 0.000188 
-368.011963 -380.799988 -142.699997 0.000000 -0.064220 0.000000 
-2163.137207 -380.846039 -77.274025 -0.000156 -0.187323 0.000166 
-707.692139 -380.799988 71.428322 -0.000000 -1.341387 -0.000013 
-2169.145752 -380.800232 28.088217 0.000001 -0.172980 -0.000000 
-2174.325684 -380.800079 -92.610054 -0.000006 -0.444015 -0.000032 
-2151.597168 -380.800659 -74.584000 -0.000084 -2.438751 0.000028 
-635.405090 -380.800262 -74.826248 -0.000111 -0.797640 0.000155 
-960.594482 -380.799988 -123.239845 0.000000 -3.121626 0.000000 
-1935.197876 -380.799988 -142.699997 0.000000 -0.001092 0.000000 
-1360.586304 -380.800262 -75.788620 -0.000001 -0.961517 0.000003 
-1259.404785 -380.800385 -75.313896 -0.000001 -0.666715 0.000028 
-1209.728394 -380.799988 -123.186951 0.000000 -0.098240 -0.000020 
-584.368652 -380.807556 -75.963654 -0.000142 -1.010717 0.000123 
-1358.975098 -380.797729 -115.955917 -0.000123 -1.564968 -0.000104 
-559.728394 -380.799988 -123.186951 0.000161 -1.560981 -0.000507 
-1265.448120 -380.799988 61.914684 0.000000 -2.433822 0.000000 
-1307.583862 -380.801941 -113.594398 -0.000090 -1.222330 -0.000219 
-1408.281250 -380.799866 -79.950645 -0.000019 -1.775999 0.000052 
-608.046631 -380.808624 -111.918388 -0.000328 -1.356763 -0.000961 
-660.594482 -380.799988 -123.239845 0.000000 -1.508933 0.000468 
-1411.999634 -380.800751 -111.273064 -0.000012 -1.674463 0.000049 
-759.533386 -380.799988 72.221466 0.000000 -3.093404 0.000000 
-762.453308 -380.800873 61.328751 -0.000000 -1.721606 0.000140 
-1505.703369 -380.800018 -109.914841 -0.000001 -0.112214 -0.000007 
-1414.501343 -380.799988 -69.399727 0.000000 -2.141522 0.000000 
-702.284546 -380.800385 -112.540222 -0.000040 -2.769965 -0.000258 
-858.746704 -380.799988 72.070679 -0.000000 -1.386155 -0.000052 
-909.533386 -380.799988 72.221466 0.000033 -1.381554 0.000110 
-1688.424316 -380.799988 -3.150489 -0.002004 -0.297803 -0.071595 
-758.584778 -380.800018 -112.458000 0.000000 -0.124887 0.000000 
-736.808533 -380.799988 -7.960596 0.000000 -1.516183 0.000000 
-749.986206 -380.799988 -5.957700 0.000000 -1.500522 0.000000 
-1560.161621 -380.801117 -113.980042 -0.000004 -0.170775 -0.000000 
-1612.750488 -380.799927 -114.657387 -0.000071 -1.203748 -0.000024 
-1636.763184 -380.799988 -41.013130 0.000067 -1.221032 -0.000062 
-1674.964478 -380.801910 -44.207417 0.000076 -1.386232 -0.000070 
-983.377319 -380.799988 71.916016 -0.000000 -0.088210 0.000007 
-1883.777710 -380.799988 71.908936 0.000000 -0.310930 0.000000 
-835.787903 -380.799835 -75.728348 0.000033 -0.372560 0.000071 
-1760.603882 -380.800049 -76.052666 -0.000001 -1.511779 0.000003 
-1708.984985 -380.800018 -112.706573 0.000011 -0.220136 0.000048 
-1660.594482 -380.799988 -123.239845 0.000083 -1.738515 0.000378 
-1656.239258 -380.797424 -112.400276 0.000057 -1.182941 0.000257 
-935.281555 -380.800079 -26.272238 0.000019 -0.759131 -0.000019 
-885.061890 -380.800110 25.471033 0.000020 -0.785565 -0.000019 
-934.703796 -380.801331 24.737505 0.000040 -1.596898 -0.000040 
-986.822205 -380.799774 62.714893 -0.000000 -1.735810 -0.000040 
-1035.334229 -380.799988 72.207291 0.000000 -0.034809 0.000000 
-885.724609 -380.798645 -75.499214 -0.000024 -1.027719 0.000057 
-1759.800903 -380.807190 -114.385910 0.000030 -0.211065 -0.000005 
366.006653 -437.633759 62.103142 -0.013541 -0.173045 -0.000001 
414.266602 -441.410248 72.246544 -0.048238 -0.616444 -0.000003 
165.934982 -421.975769 61.947739 -0.061889 -0.790787 -0.000001 
662.698792 -460.862152 64.862732 -0.018281 -0.234056 -0.000081 
364.419006 -437.509155 72.246544 -0.003621 -0.046269 -0.000000 
-87.695457 -402.126312 -112.146378 -0.057172 -0.730535 -0.000000 
-135.607834 -398.376648 62.034992 -0.099439 -1.270592 -0.000000 
713.955872 -464.865295 64.134132 -0.131038 -1.674780 -0.000012 
515.363342 -449.321167 -109.651863 -0.048036 -0.613370 0.000004 
522.556824 -449.885162 -23.061628 -0.080933 -1.034211 -0.000007 
215.240738 -425.833252 -113.936295 -0.064720 -0.826862 -0.000011 
420.803528 -441.921997 62.797108 -0.095158 -1.216042 -0.000000 
561.613281 -452.941803 -123.767242 -0.023095 -0.295139 0.000033 
613.243103 -456.991425 64.639290 -0.078567 -1.003858 -0.000273 
64.264206 -414.018738 72.224953 -0.116144 -1.485180 -0.000264 
739.231140 -466.842255 -25.828588 -0.064392 -0.822550 -0.000015 
314.571442 -433.608032 72.246544 -0.003235 -0.041342 0.000000 
-83.030663 -402.491333 72.248802 -0.239514 -3.060456 -0.000003 
116.158440 -418.080017 72.353813 -0.003403 -0.043484 0.000000 
165.028702 -421.904694 72.246544 -0.002752 -0.035167 -0.000001 
-352.407501 -381.409668 91.699997 -0.000610 -0.007796 -0.000000 
782.011841 -470.190338 91.699997 -0.027314 -0.349010 0.000000 
105.389168 -417.237854 -31.300211 -0.138281 -1.767250 0.000057 
-182.707764 -394.690369 64.826187 -0.020938 -0.267541 0.000000 
406.146362 -440.774780 63.431477 -0.153422 -1.960173 0.000009 
139.974365 -419.943848 -25.637369 -0.091504 -1.169181 -0.000004 
94.855598 -416.412750 -3.538767 -0.089258 -1.140714 0.000048 
-282.538361 -386.877655 -115.746170 -0.124292 -1.588077 -0.000001 
463.872223 -445.292419 -123.263626 -0.003907 -0.049917 -0.000012 
782.011841 -470.190338 -142.699997 -0.000721 -0.009217 -0.000002 
513.546082 -449.180542 -123.799789 -0.005519 -0.070530 0.000009 
-352.407501 -381.409668 -142.699997 -0.000216 -0.002754 0.000000 
215.502426 -425.854797 -123.239845 -0.002664 -0.034041 -0.000000 
165.654846 -421.953705 -123.239845 -0.242193 -3.094702 -0.000037 
637.882202 -458.909271 25.944118 -0.046339 -0.592208 0.000116 
514.834595 -449.280823 72.530289 -0.119876 -1.531084 -0.000437 
107.275711 -417.384888 -113.049713 -0.136261 -1.741275 0.000002 
364.566498 -437.520721 -25.507095 -0.033837 -0.432396 0.000002 
414.013092 -441.390533 -111.273819 -0.109901 -1.404440 -0.000012 
637.825928 -458.906250 -75.171036 -0.073598 -0.940391 0.000007 
112.157043 -417.766907 -122.855949 -0.035439 -0.452828 0.000009 
136.627106 -419.681732 -111.088341 -0.179387 -2.292160 0.000044 
588.914185 -455.077942 24.185204 -0.076026 -0.970527 -0.000012 
215.881943 -425.884521 72.253075 -0.017109 -0.218618 0.000033 
-35.666378 -406.198303 61.531052 -0.130127 -1.662730 0.000030 
-32.139935 -406.474091 72.244492 -0.097683 -1.248167 0.000023 
35.259071 -411.749451 -3.581796 -0.136727 -1.746830 -0.000009 
417.097656 -441.631805 -122.955719 -0.102780 -1.313314 -0.000014 
66.193199 -414.170319 -113.976654 -0.092471 -1.181792 0.000003 
596.760376 -455.697418 -4.117905 -0.033973 -0.433587 0.000057 
712.998962 -464.789856 -115.545815 -0.216476 -2.767187 0.000165 
91.215622 -416.128052 -47.878128 -0.094169 -1.203267 0.000010 
-133.210815 -398.564209 72.178345 -0.018283 -0.233618 0.000002 
-84.776459 -402.354797 60.652683 -0.116076 -1.483206 0.000012 
538.751892 -451.148499 24.176443 -0.026151 -0.333604 0.000044 
315.197601 -433.657043 -123.239845 -0.108618 -1.387754 -0.000073 
-9.214025 -408.268341 -27.595783 -0.069812 -0.892096 0.000008 
255.629364 -428.995026 -76.369942 -0.076489 -0.977287 0.000010 
214.694244 -425.791656 -26.688025 -0.124839 -1.595205 -0.000005 
598.091309 -455.801086 -46.112137 -0.141092 -1.803266 -0.000234 
613.725403 -457.025238 -117.071381 -0.014735 -0.188421 0.000031 
663.549927 -460.921448 -115.155403 -0.224193 -2.866734 0.000476 
264.914062 -429.726196 -112.592377 -0.141738 -1.812847 0.000263 
564.211182 -453.146484 -74.900871 -0.061835 -0.789933 0.000053 
799.697815 -462.999023 -18.668148 0.287261 -0.141867 -0.275278 
810.433228 -470.797546 -3.446368 -0.003293 0.007127 -0.117977 
2605.568359 -470.799988 -28.066614 -0.261262 0.200740 0.225391 
2861.338623 -470.800537 -4.388902 0.020924 0.175439 -1.190117 
2861.417725 -470.800140 -45.987301 0.061291 0.330500 1.579893 
2864.353516 -462.999939 -3.185984 0.920001 -0.236212 -0.774041 
2849.035156 -470.799988 -27.475815 0.267410 0.051359 0.178873 
2861.000244 -462.999817 -47.602863 -0.002856 -0.026676 0.148139 
2913.285156 -470.800018 -47.999496 -0.043057 -0.402185 2.233478 
2922.273438 -462.996246 -46.420982 -1.102242 1.101742 0.829588 
886.556274 -470.799988 -123.115341 -1.295427 0.139455 0.825067 
257.879211 -421.346252 68.182854 0.464451 0.076655 0.418791 
215.829575 -425.880463 62.106544 0.087085 -0.269681 1.504151 
1863.445679 -470.788483 25.900732 1.567661 0.029809 0.499233 
1364.405518 -470.799988 -123.239845 0.489647 0.180111 0.261597 
1373.577026 -470.803772 -115.536034 -0.371199 0.000000 0.441918 
1364.405518 -463.000000 -123.239845 -0.638902 0.000000 0.760623 
835.912231 -462.998352 -111.695023 -0.789214 -0.500480 -0.825691 
-285.027008 -378.858978 70.678093 -0.923405 -0.079947 -0.217241 
-283.117310 -386.832458 65.495064 -1.286602 -0.111392 -0.302687 
1017.778015 -470.800140 -123.153931 1.226421 0.535782 0.501370 
1012.939758 -470.796082 -111.323227 -1.298526 0.257325 -0.531130 
1088.866089 -470.799194 63.218624 -1.206657 -0.044671 0.130762 
1089.577759 -463.000000 72.450203 1.531381 0.022447 -0.165932 
1089.665771 -470.799988 72.207291 1.011509 0.014827 -0.109602 
566.997864 -453.367157 -112.361221 1.236730 0.365044 -0.570225 
518.917908 -441.776459 -122.383850 -0.491489 -0.228996 -0.272914 
477.423157 -446.352600 -105.094719 -0.267898 0.050696 0.202765 
464.776001 -437.542938 -112.892853 1.142960 0.934528 -0.797924 
1140.466675 -470.799988 72.221466 0.570674 0.091009 -0.131839 
1136.645508 -462.999664 61.065872 -1.053968 -0.059361 0.670072 
1138.349487 -470.803314 63.054779 -1.034202 -0.058247 0.657505 
365.045166 -437.558167 -123.239845 -1.561004 0.122167 -0.126572 
364.219299 -437.494446 -112.993011 1.251220 0.067450 0.100425 
1139.405518 -463.000000 -123.239845 0.774529 -0.029982 0.082918 
1138.267212 -470.796661 -115.426224 -0.997638 0.038619 -0.106803 
314.909149 -433.635040 -112.387604 1.066429 0.089675 0.028164 
315.806183 -425.880829 -123.239845 1.527253 -0.119526 0.340656 
1265.804932 -470.800110 61.126816 1.373933 0.496941 0.041883 
1262.958618 -463.000000 61.949337 0.936985 0.338900 0.028563 
1267.270752 -463.000000 71.908043 -0.577150 -0.236959 0.249907 
265.350006 -429.755920 -123.239845 0.585938 0.542739 0.022475 
272.374115 -422.483521 -113.256973 -0.033078 -0.914365 0.689378 
1314.055054 -470.800140 62.077457 -1.607931 0.420253 0.223750 
174.922745 -422.678711 -112.389641 -0.378317 0.029608 0.325125 
1365.466675 -463.000000 72.221466 1.522402 0.000000 -0.387645 
1365.203491 -470.799866 61.243034 -0.617418 0.000000 0.014801 
1265.503662 -463.000854 -111.453964 1.429887 -0.435368 -0.133261 
63.533741 -413.961639 -123.168266 1.596579 0.050707 -0.460796 
1313.276489 -462.993591 -113.853226 -0.663109 0.000000 -0.155027 
1315.466675 -463.000000 -123.221466 0.579699 -0.105259 0.135599 
15.715981 -410.220032 -111.691414 -0.933600 1.012215 -0.017672 
15.921857 -410.235474 -123.452126 -0.564509 0.612044 -0.010686 
-29.884680 -398.826782 -109.612083 -0.336985 0.816140 -0.474835 
-30.364254 -406.613098 -122.654747 0.773316 0.403521 0.878402 
-33.990364 -398.505432 -123.186951 0.400626 0.226123 0.468107 
-41.012474 -405.778717 -113.663712 -0.062335 -0.150499 0.220807 
-82.445946 -402.537109 -123.151215 1.294812 0.290271 0.606814 
-134.166702 -398.489410 -123.443253 -0.584404 0.895267 -0.060733 
-133.992508 -390.679260 -124.179581 -0.958697 0.125373 1.103018 
-135.224518 -398.406708 -112.045273 1.209169 0.351189 0.346415 
1414.405518 -470.799988 -123.239845 -0.571957 0.074322 0.048995 
-181.099167 -386.992523 -106.586685 -0.674505 0.332841 -0.087728 
-179.098114 -387.147247 -122.558968 0.576409 0.145850 0.549218 
-183.664871 -394.615784 -115.782776 0.683671 0.172990 0.651420 
1565.466675 -470.799988 72.221466 1.547880 0.000000 -0.267717 
1567.070190 -463.000366 -115.210915 -0.545772 0.361150 -0.169702 
1514.622559 -470.800354 24.263128 -0.014039 0.676745 -0.263576 
1612.602051 -463.001312 -113.830971 0.671165 0.000000 0.128647 
1665.466675 -463.000000 72.221466 1.556502 0.000000 -0.201105 
1664.533691 -470.802582 60.342934 1.608400 0.127705 -0.126358 
1715.992554 -462.999512 -112.589455 1.621720 -0.372435 -0.080196 
1762.978149 -470.799805 -112.608795 0.836563 -0.308095 -0.113724 
1764.405518 -470.799988 -123.239845 -0.645586 0.229995 -0.086683 
1815.466675 -470.799988 -123.221466 1.519911 0.231386 0.240394 
1815.466675 -463.000000 72.221466 -0.608233 0.257500 -0.156022 
1723.155884 -463.000214 65.370911 0.183557 -0.817099 -0.724289 
1707.376221 -463.005829 61.378189 0.138127 -0.614867 -0.545027 
3087.722656 -425.198792 101.699722 0.010837 -0.488976 0.236184 
3073.294922 -421.750885 109.500000 -0.247833 -0.423588 -0.271167 
1380.610596 -428.223907 109.499962 0.715725 -0.951145 0.176943 
1380.678345 -429.623962 101.700012 0.875001 -1.162811 0.216319 
1966.577637 -470.799652 -112.171432 1.365846 0.211934 -0.268047 
1964.405518 -470.799988 -123.239845 -1.541366 0.000000 0.302485 
1710.800537 -462.997559 -81.946472 0.701558 -0.010715 -0.477200 
315.028198 -433.643951 61.572952 1.134363 0.149725 0.646874 
-1152.787231 -373.001312 -49.652344 -0.236257 -0.193248 0.099762 
-1208.590698 -373.000000 72.119568 0.628049 -0.093182 -1.322903 
-1209.533325 -380.799988 72.221466 -0.803289 0.081135 -1.220349 
-1219.019653 -373.004883 67.168755 0.710069 0.790883 -0.112994 
2187.764404 -470.800262 61.047035 0.856038 -0.217481 0.026048 
2138.486816 -463.001129 60.654575 1.006108 0.071389 -0.124068 
-934.678528 -380.805786 -75.112312 -0.723571 -0.268610 -1.384199 
2236.730957 -463.000214 60.826588 0.548004 0.000000 -0.179653 
-860.611023 -380.799622 62.250340 0.901470 0.304060 -0.248196 
2257.239258 -470.799622 -110.436333 0.856234 -0.500070 0.479257 
2262.878418 -462.998169 -112.370926 1.035868 -0.604982 0.579803 
2273.662842 -470.800354 -115.224564 -0.371249 0.000000 0.428777 
2290.466553 -463.000000 72.221466 -1.000709 0.000000 -0.057939 
2314.326416 -462.999969 22.041285 -0.882489 -0.228196 -0.242550 
2314.656250 -470.799591 28.179245 -1.082180 -0.279832 -0.297435 
2311.535400 -462.999878 32.195965 -0.974602 -0.252014 -0.267867 
2313.184326 -462.999969 -113.504196 0.622267 -0.244580 0.274007 
-1410.022583 -372.999969 -77.562881 -1.061690 -0.045418 -0.625900 
-1360.594482 -380.799988 -123.239845 0.685155 0.691715 -0.152540 
2014.190552 -470.800201 -76.403725 -0.497156 0.148026 -1.396772 
2008.805664 -463.000061 -73.660431 -0.306329 0.091208 -0.860638 
2042.456665 -470.800385 61.803333 0.640813 0.755191 0.122374 
2081.875244 -462.999847 -112.370125 0.438077 0.000000 0.303489 
2089.405518 -463.000000 -123.239845 1.291223 0.000000 0.894528 
2091.558350 -470.800903 -111.549950 -0.571099 0.000000 0.105175 
-718.974670 -380.799957 -114.559525 0.769471 -0.445293 -0.856075 
-718.221863 -372.996857 -117.941711 0.927505 0.563688 1.506938 
-610.594482 -380.799988 -123.239845 -0.616034 0.572985 0.139073 
-601.657654 -372.997040 -115.801888 -0.179128 -0.250209 -0.797985 
2339.296631 -463.000885 63.904236 -1.437736 0.080176 0.202227 
2340.466553 -463.000000 72.221466 -0.797738 0.044486 0.112207 
2390.466553 -470.799988 72.221466 1.010970 0.000000 -1.202220 
-1405.704224 -380.800079 -122.653793 -0.518261 0.112057 -0.286677 
-1029.222046 -380.799255 60.827827 -1.009046 -0.505572 0.058564 
2386.162354 -463.000000 -122.690773 0.856234 0.355239 0.011012 
2432.833008 -470.799988 19.633041 -0.387448 -0.119044 0.641442 
2463.849121 -462.999847 -112.871826 1.151450 -1.060201 -0.017789 
2484.190674 -470.801270 59.722118 -0.130451 0.190721 0.523192 
2498.396484 -470.800201 63.263771 -0.309740 0.452844 1.242253 
2590.466553 -470.799988 72.221466 -1.555977 0.192418 0.279355 
2588.381348 -463.000153 59.600697 1.271940 -0.050736 -0.307360 
2588.577637 -470.800201 61.700546 0.611976 -0.075679 -0.109872 
2715.466553 -470.799988 72.221466 -0.964088 -0.075614 -0.106755 
2714.843994 -463.000000 72.319023 0.651624 -0.171056 0.072163 
-583.071411 -372.999542 26.924715 -0.473506 -0.467538 1.264890 
2782.747803 -462.999908 60.405224 0.816949 -0.613093 -0.533662 
2797.680420 -470.800018 63.917122 -0.853654 0.344291 1.138140 
-1517.635498 -380.799957 -117.578705 0.395252 -0.020295 -0.615381 
-1510.206665 -373.000000 -113.064499 0.840051 -0.781551 -0.032017 
-960.594482 -373.000000 -123.239845 1.460593 0.000000 0.576519 
1465.466675 -463.000000 72.221466 -1.595775 0.184770 0.348855 
-833.618042 -380.788483 -110.761749 -0.015309 -0.178924 -0.367946 
-810.594482 -380.799988 -123.239845 -1.156713 0.155814 0.929274 
-801.633545 -380.803772 -112.085091 -0.403407 0.054341 0.324087 
-809.566345 -373.000000 -123.267921 -0.875621 0.117950 0.703452 
1466.395996 -462.999939 -18.519409 0.752542 -0.207462 -0.957535 
1513.481079 -462.995789 -37.118523 -0.154421 -0.098429 -0.106103 
1499.047485 -462.999847 -114.632454 -0.076245 -0.291816 -0.507929 
1486.475220 -470.800262 -108.263725 1.063033 0.437577 0.208006 
1484.070557 -462.999695 -112.384354 1.227564 0.505303 0.240200 
1214.665771 -470.799988 72.207291 0.948142 -0.096739 -0.338985 
1089.405518 -463.000000 -123.239845 -0.772453 0.000000 0.228586 
-1609.690674 -373.000000 -123.458313 0.791203 0.005927 0.280330 
-1609.728394 -380.799988 -123.186951 -0.830705 0.012677 0.248928 
1914.405518 -463.000000 -123.239845 1.561886 0.000000 0.165017 
1916.645874 -470.799866 -114.700127 -0.699933 0.000000 0.183624 
-860.594482 -380.799988 -123.239845 0.835853 -0.109809 0.101987 
-865.426819 -380.800995 -109.477348 0.808820 -0.311914 0.283973 
2189.837891 -463.000061 -111.456596 -1.229742 0.110569 0.040089 
2190.466553 -470.799988 -123.221466 1.541061 0.206724 0.241267 
-1252.023804 -380.799805 66.418221 -0.727572 -0.339539 -0.547739 
-1264.223389 -380.799988 70.554718 0.780315 -0.177985 -0.963164 
2514.405518 -463.000000 -123.239845 -0.646867 -0.081507 0.001923 
-762.151367 -373.000000 72.320343 -1.393069 -0.463976 -0.283396 
1857.137695 -462.998657 -118.660538 0.667487 0.652439 -0.052129 
1865.278442 -470.802155 -112.089600 -1.271405 0.163252 0.213767 
-1560.594482 -380.799988 -123.239845 1.569221 0.245515 -0.073325 
-1559.166260 -373.000366 -110.911293 -1.153788 0.050285 0.246412 
-910.727661 -373.005646 -114.263367 1.005004 0.279608 -0.227875 
-1882.850464 -373.000000 72.033257 1.402686 -0.158056 -0.545344 
-1885.344604 -380.799683 62.954071 -1.024583 -0.136054 0.398343 
2812.501465 -463.000000 -123.890610 -1.223126 -0.596206 0.519980 
2817.391113 -463.000153 -112.389084 -0.876782 0.483534 -0.220902 
2589.059082 -463.001343 -112.711678 1.058865 -1.256351 0.261890 
2673.564697 -463.000000 -117.274757 -0.356809 -0.233335 0.627275 
-476.424316 -372.999481 66.505234 -0.074400 -0.390873 -0.650977 
-485.334259 -380.799988 72.207291 -0.500154 0.273604 -0.407238 
-493.753418 -380.800079 64.605347 0.788919 0.401322 -0.873734 
2862.177979 -463.000031 -113.858292 0.633741 -0.377351 0.302008 
2866.647461 -463.000000 -123.237129 -0.837748 0.474189 0.417011 
-486.735352 -380.799042 -113.361038 -1.337901 0.112881 -0.273287 
-485.784851 -372.998291 -114.792206 -0.999357 0.084317 -0.204134 
2934.746582 -463.000000 70.752800 -0.273977 -0.480922 -0.722815 
2941.771973 -463.001770 -110.987381 -0.574261 -0.291675 0.110843 
-1209.760498 -380.800476 -111.461586 -0.580873 0.012141 -0.001590 
3035.270508 -470.799927 67.641556 -0.439034 -0.025908 -0.541900 
2983.563232 -470.800171 70.177719 -0.693106 0.568872 -1.080600 
3123.065918 -470.800140 67.310997 -0.462649 0.045581 0.534293 
3110.835205 -470.799713 56.720295 -0.546646 0.053857 0.631299 
-1710.594482 -380.799988 -123.239845 0.932381 0.000000 -0.045063 
-1710.594482 -373.000000 -123.239845 1.568933 0.000000 -0.075828 
-2068.208984 -372.999603 -81.088875 0.458243 0.140063 -0.526947 
-2057.811279 -372.998169 -72.046455 -0.675720 -0.206535 0.777030 
-2162.669434 -373.000702 -66.637398 0.624663 0.163436 -0.148018 
3185.934082 -470.800415 -73.785011 -0.133141 0.322906 -0.562267 
3196.944824 -470.799988 -76.392029 0.169713 0.878174 0.716927 
-437.680298 -373.000000 72.017502 0.708340 -0.062518 0.337999 
-2110.453857 -373.000000 -83.724388 -0.784166 -0.046450 0.026627 
1210.419922 -462.996033 -76.439201 0.092555 -0.306552 -1.043500 
1224.583130 -463.000000 -75.181808 0.057893 -0.191748 -0.652708 
1214.423340 -470.798126 -73.792068 0.115940 -0.384006 -1.307153 
-1310.594482 -380.799988 -123.239845 -1.499637 0.000000 0.468079 
2752.698730 -463.000000 72.239845 0.609415 -0.492339 -0.063251 
1191.124512 -470.800171 -27.197264 -0.913392 -0.044499 0.628856 
-1060.594482 -380.799988 -123.239845 0.896679 0.000000 -0.192002 
-1060.594482 -373.000000 -123.239845 -0.551265 -0.034693 0.118045 
-760.594482 -380.799988 -123.239845 0.633269 0.118896 -0.118039 
-561.173828 -373.003021 -112.660469 0.807477 0.392518 -0.179860 
944.074402 -462.999908 -59.618244 -0.427437 0.079085 0.088024 
939.325867 -470.800110 -75.668564 1.484386 -0.274645 -0.305687 
-909.610474 -380.800507 65.699539 0.955263 -0.004588 -0.186047 
-909.980530 -372.991760 63.606907 1.280125 -0.006149 -0.249318 
25.275654 -410.968781 -28.549723 1.264234 0.004436 0.994771 
40.526443 -412.161041 -47.926331 0.238311 0.000836 0.187517 
25.309116 -403.146454 -28.627131 0.966366 0.003391 0.760391 
92.895035 -408.435425 -2.957379 0.011452 0.130225 -1.748220 
92.590813 -408.411835 -47.887558 -0.000151 0.000552 0.149989 
106.750099 -409.518005 -24.354361 -1.552651 0.825860 -0.613670 
-2031.368652 -380.799988 -120.316254 -0.001161 -0.033154 -1.414753 
-1935.197876 -380.618835 -145.233200 -1.431004 0.000000 0.000000 
-1935.197876 -372.807861 -144.650909 -1.466519 0.000000 0.000000 
-1935.197876 -379.191467 -150.094391 -1.300313 0.000000 0.000000 
-1935.197876 -371.314697 -148.255707 -0.319000 0.000000 0.000000 
-1935.197876 -370.071075 -149.771072 -0.324622 0.000000 0.000000 
-1935.197876 -372.623413 -157.674316 -1.476522 0.000000 0.000000 
-1935.197876 -370.394379 -158.891449 -1.453709 0.000000 0.000000 
-1935.197876 -363.000000 -160.500000 -0.115554 0.000000 0.000000 
-2030.863525 -373.000000 -120.499458 -0.010188 0.000256 -0.052335 
-2185.193848 -380.800018 -79.173981 -0.381751 -0.145444 -0.308790 
-1648.493408 -380.799988 -4.268264 0.237415 -0.238209 -2.049498 
-1675.533813 -379.838074 -7.512443 0.869734 0.590084 -0.002005 
-1637.268677 -380.799988 -12.463883 -0.390257 0.215935 -0.534497 
-1672.410767 -373.004578 -47.403782 -0.122322 0.639584 1.462497 
2668.084717 -405.771362 -152.699997 0.000135 1.571036 -0.005766 
3006.229004 -405.808289 -160.499863 0.644382 0.862505 -0.244966 
3009.184082 -405.800751 -152.699997 1.084334 1.451381 -0.412216 
3042.622070 -430.782440 -152.699997 0.000317 1.323519 0.001502 
-2156.404541 -373.001007 24.360458 -0.080665 -0.119896 -0.526553 
538.844421 -451.159332 -3.090285 0.705292 0.357465 -0.552393 
537.092468 -451.022491 -47.770218 0.677247 0.241774 0.387284 
584.014404 -446.860962 -48.619610 -0.341067 -0.426256 0.394974 
-1902.382935 -372.999512 -25.472361 -1.579754 1.281464 -0.110407 
-1910.690186 -380.800446 2.848326 -1.047257 -1.796284 -0.801976 
-1954.045532 -380.800568 13.828981 -0.096915 0.399781 -0.382649 
-1907.957886 -380.800446 -36.246689 -0.855717 -1.279145 1.368912 
-1118.911865 -380.800049 -115.616699 0.654612 0.425332 -1.073252 
-1118.538330 -373.000031 -112.297707 0.622082 0.404195 -1.019918 
-667.245361 -373.004395 -119.421532 0.452208 -0.008812 -0.431826 
-659.869690 -380.796356 -111.538719 0.670430 0.592414 -0.041712 
-659.566345 -373.000000 -123.267921 -0.972781 0.128442 0.060216 
-510.187042 360.775635 91.129700 -1.447976 -0.383949 0.629420 
-527.485840 360.082947 64.310135 -0.265535 0.036699 0.161115 
-516.627136 359.541199 82.329872 -1.451150 0.200560 0.880493 
-363.197815 367.000000 46.500000 0.000000 0.000000 -1.523213 
-510.197815 360.000000 46.500000 -0.000037 0.000767 -2.109657 
-483.878693 360.125977 69.457558 -0.027775 -2.860593 -0.200616 
-384.018280 367.063232 64.783920 0.011236 2.670659 -0.041888 
-514.452820 366.663727 62.976704 -0.014199 1.515897 0.004972 
-474.512970 361.009430 62.430691 -0.058601 1.062439 -1.995029 
-484.737976 366.932526 65.885338 -0.014985 0.271680 -0.510155 
-514.848755 367.000031 46.502625 -0.000393 0.282268 0.001594 
-433.970490 367.000000 72.827156 -0.002118 0.516983 0.003916 
-515.304504 366.590393 82.904037 -0.000641 0.156364 0.001184 
-452.871002 366.982025 64.975655 -0.015313 -0.001175 0.589391 
-410.072327 367.193298 66.088005 0.057260 -0.299944 0.355821 
-420.610107 360.156189 61.851753 -0.064674 0.507302 -0.395061 
-442.353394 360.018921 65.235023 0.612873 0.870701 -1.477330 
-398.994324 359.863068 65.896263 -0.108071 -0.178095 0.564674 
-376.128204 360.000549 62.841034 -0.096236 0.089518 -0.716227 
-502.963745 360.091614 59.629906 0.094381 -0.086751 0.494350 
-355.219269 357.078735 84.918922 0.260752 -1.666584 -1.458251 
-346.600311 353.102722 86.499588 -0.054652 -0.701136 -1.465635 
-510.197418 353.375885 93.498627 -0.002393 0.477055 1.490154 
-345.949310 363.120880 89.114517 -0.000272 0.048919 0.034750 
-348.649628 367.162506 80.600296 0.005169 1.659129 0.785935 
-510.211761 353.277802 86.499123 -2.289636 0.000545 0.011340 
-382.181854 313.494110 86.499825 -0.012264 -0.083382 0.002580 
-464.130035 325.763885 93.500008 -0.199587 -1.356968 0.041984 
-163.197830 195.000000 93.500000 -1.023386 -1.191670 0.000000 
-382.761597 313.180176 93.500328 -0.480140 -1.424571 -0.103647 
-304.011993 286.638275 93.500023 -0.026987 -0.080070 -0.005826 
-301.059082 284.931183 86.500023 -0.372369 -1.057581 0.100830 
-38.174263 195.065048 93.504807 0.000000 -1.960025 0.018201 
42.342762 267.221130 86.500198 0.122981 -0.189780 0.048589 
114.122910 313.735687 86.499199 0.055794 -0.111905 0.013413 
-147.065323 219.376755 93.499939 1.548237 0.275257 0.256188 
-45.921856 219.536102 93.504311 -1.135111 -0.626028 -1.083353 
-107.826607 282.704559 86.498596 0.547331 -0.283656 0.017706 
-180.072266 329.427246 86.500496 -0.607087 -0.174658 -0.039287 
-177.846924 320.117401 93.501732 -1.587597 -0.456748 -0.102741 
-105.352043 325.944550 86.498581 -0.368666 0.427640 0.273122 
-117.061790 315.848175 86.500877 0.335833 -0.389397 0.444047 
-48.554874 316.824280 86.500221 -1.302450 0.772207 0.022070 
-341.031677 362.020142 46.491783 0.043858 -0.591713 -0.006154 
-363.863464 359.978729 80.058937 0.078824 -1.063447 -0.011060 
-363.197815 360.000000 46.500000 0.144398 -1.584406 0.001860 
-316.721161 368.280792 82.667313 0.199398 -0.952046 -2.216012 
-510.197235 341.990112 89.974342 -0.322990 -0.543487 -1.763923 
-463.366028 325.434937 86.500000 0.000007 -0.000064 -2.372676 
-163.197830 195.000000 86.500000 0.000006 0.000006 -1.353465 
-54.267731 280.772858 86.497307 -0.000034 0.000008 -0.676480 
-169.544983 271.993530 86.501350 0.000159 -0.000060 -1.358051 
-294.843445 363.942261 86.499809 0.000001 -0.000002 -0.682416 
-243.510345 289.534790 86.500130 0.000002 -0.000003 -1.046712 
-221.541351 269.860626 86.500397 0.000016 0.000003 -1.117479 
-249.132660 258.611481 86.499962 0.000015 0.000003 -1.003814 
-29.762510 202.362854 86.496704 -0.000024 -0.000656 -1.501697 
-55.147675 217.366165 86.490547 -0.000005 -0.000131 -0.299584 
-34.831055 195.000000 86.500000 0.000000 -0.000008 -0.380898 
-198.995102 225.177185 86.499969 0.000004 0.000027 -0.997490 
-175.736588 314.357056 86.500267 -0.000021 0.000020 -0.549854 
167.321701 340.259583 86.499939 -0.000002 0.000015 -0.406039 
104.938637 336.732880 86.500114 -0.000001 0.000002 -0.157661 
231.666992 364.292267 86.500000 -0.000000 0.000002 -0.143317 
33.060333 282.051758 86.501633 0.000005 -0.000010 -0.546156 
-45.517216 327.871002 86.500000 0.000002 -0.000000 -2.939082 
387.147919 406.387634 93.500000 0.399153 -1.474288 0.000000 
387.147919 406.387634 86.500000 0.410503 -1.516209 0.000000 
234.549561 365.063171 93.499992 0.515916 -1.905116 -0.002643 
-354.916290 354.159027 93.497246 0.000002 0.000016 0.249321 
-192.450851 220.122009 93.499931 -0.000000 0.000002 0.693152 
-112.335236 327.905975 93.500000 0.000005 0.000029 0.303334 
-111.264526 316.375946 93.499786 0.000023 0.000097 1.023803 
-112.552452 274.023041 93.503815 0.000035 0.000145 1.530648 
-96.706856 220.494141 93.503555 -0.000093 -0.000034 1.305180 
-178.069305 274.850616 93.504280 0.000012 0.000089 1.578514 
-243.427917 255.233063 93.500015 -0.000047 -0.000001 0.957847 
-244.352005 290.419678 93.499992 -0.000039 0.000020 1.140703 
35.563988 283.071808 93.498161 0.000035 0.000029 0.772132 
-47.228691 274.659882 93.502274 -0.000011 0.000028 0.763904 
67.053963 285.027802 93.504776 -0.000146 0.000171 0.645314 
-42.174694 327.385406 93.500221 -0.000003 -0.000021 1.043042 
-303.014282 363.589722 93.499535 -0.000000 -0.000000 0.047082 
163.624969 339.255524 93.500191 -0.000016 0.000065 2.850283 
-50.234291 313.791626 93.499924 0.000050 0.000073 1.150314 
-222.230515 270.989288 93.501076 -0.000076 -0.000070 1.128368 
104.706558 335.853851 93.499947 0.000000 0.000003 0.125514 
-316.802124 369.161346 91.353302 -0.060994 0.244185 0.135257 
-301.540222 367.170319 92.765846 -0.020423 0.104464 0.367911 
-336.378204 370.487244 46.491470 0.000512 -0.000358 -2.074414 
-341.207642 361.635559 82.216530 0.414307 -1.525669 -0.014383 
-302.794403 367.101562 85.118561 0.012971 -0.164891 -0.451817 
386.029877 420.673645 85.342331 0.000158 -0.002008 -0.005502 
386.262146 417.705811 93.499245 -0.000083 0.001063 0.005021 
385.740570 424.370392 91.214180 -0.080431 1.029482 1.175391 
-299.657990 374.002136 88.428581 -0.144586 1.845433 2.206898 
385.324921 429.681519 85.309860 -0.103209 1.318784 0.847096 
-302.221344 375.873535 85.309860 -0.064713 0.825935 0.548794 
385.222809 430.986237 81.806740 -0.114649 1.466403 0.549498 
-302.348907 377.503448 78.500000 -0.000374 0.004783 0.000473 
-314.267334 376.136230 82.237137 -0.023543 0.300518 0.034859 
-278.739288 379.365021 65.976410 0.341585 -0.004201 -0.937477 
-285.016022 378.859924 63.691643 0.435189 -0.005352 -1.194371 
263.600708 414.773773 71.964577 0.413557 -0.634934 -0.552786 
267.489990 415.066620 61.586807 -0.997578 -0.340106 -0.383460 
241.024414 420.086243 48.972572 0.050825 0.339945 0.028641 
223.571228 411.632568 62.197769 -1.504977 0.292979 -1.798831 
207.264084 410.365967 64.239914 0.668519 -0.589342 0.076906 
217.719803 418.199951 57.148384 0.066002 0.887022 1.077203 
168.753403 407.350922 72.088287 0.189505 -0.094233 -0.530058 
167.432800 407.247589 56.868038 0.238233 0.121308 0.949090 
162.237366 413.862152 57.326717 -0.373714 -0.357831 0.927201 
175.057663 414.855499 62.877369 -0.224894 -0.215335 0.557971 
143.016327 405.412598 63.231415 -0.074803 -0.015638 -0.224410 
116.415955 403.254944 72.248528 0.505697 0.105986 -1.354239 
116.020424 410.245392 56.750000 0.237098 -0.443096 0.211720 
41.438942 397.414429 63.823021 0.147288 -0.238183 -0.384466 
66.869621 399.377411 56.751472 -0.087991 -0.692787 0.559555 
-26.366791 399.100006 66.320641 0.303042 -0.824051 -0.703742 
-10.177058 393.384521 65.494019 -0.101047 -0.227638 -0.405099 
-91.583069 386.981537 62.436443 0.012582 -0.296804 0.896915 
-76.335861 395.193085 64.939896 -0.239753 0.033306 1.350961 
-168.568848 387.918274 68.459938 0.002125 0.223693 -0.233275 
-125.260628 391.362762 67.918289 -1.022337 -0.436354 0.579990 
-131.360077 390.885193 56.807606 -0.101720 0.907084 0.822831 
-182.267487 379.867065 64.653313 1.005992 0.134183 -0.700073 
-236.449509 382.660706 62.050919 -0.136118 0.280814 1.064304 
-138.765366 383.276337 64.280106 0.004475 -0.057058 -0.000145 
116.717209 403.278534 56.751472 0.018604 -0.237803 0.002810 
-124.059517 384.433594 64.822319 0.237604 -3.022411 0.006535 
66.568375 399.353851 72.248528 0.024145 -0.308518 -0.001277 
93.580811 401.503723 63.584423 0.192748 -2.462905 -0.010196 
366.061737 422.779694 63.440346 0.191406 -2.443165 -0.001605 
17.022043 395.476288 56.751472 0.021929 -0.280209 0.001080 
175.168152 407.852020 64.157074 0.175678 -2.242924 0.000379 
-232.516479 375.936859 64.327995 0.227930 -2.914135 -0.000290 
-33.126789 391.551605 72.248528 0.243066 -3.105844 -0.003785 
16.720791 395.452728 72.248528 0.001728 -0.022079 -0.000027 
-301.965576 370.503387 79.329010 0.002423 -0.030919 0.000033 
385.744324 424.322784 79.443062 0.005601 -0.071624 0.000036 
-38.948811 391.083649 60.816895 0.148893 -1.907230 0.002243 
-282.496643 372.022766 64.640259 0.186006 -2.375314 -0.001812 
-301.802734 370.524780 46.500000 0.063871 -0.820533 -0.000218 
385.743530 424.332764 46.500000 -0.000457 0.005852 0.000029 
316.245789 418.876343 64.350105 0.220999 -2.825847 -0.003365 
-74.344292 388.325867 65.462639 0.005052 -0.064427 -0.000121 
386.306335 417.141296 86.499763 0.468650 0.036677 0.000001 
386.006042 420.978271 92.765846 1.236031 0.096732 0.000002 
385.464752 427.894958 88.108269 1.082286 0.084697 0.000002 
385.820129 423.354156 82.411095 1.172074 0.091732 0.000001 
-302.348907 377.503448 46.500000 -0.061716 0.788604 0.000000 
14.153539 402.273254 56.925755 -0.009067 0.115737 0.000286 
-225.864517 383.494904 63.184570 -0.216377 2.766567 -0.001575 
-90.734772 394.061676 64.767479 -0.237909 3.029572 -0.011891 
124.723770 410.926178 63.986008 -0.183273 2.337076 -0.000537 
114.969833 410.163177 72.249176 -0.047777 0.610493 0.000009 
365.961914 429.803436 63.178761 -0.191375 2.452818 0.001058 
-178.460968 387.198303 71.528381 -0.022369 0.284987 -0.005246 
313.160095 425.682983 64.847321 -0.231187 2.958037 0.000360 
-184.340378 386.738922 56.785961 -0.049581 0.633519 0.002983 
72.668869 406.852783 66.918694 -0.017994 0.229912 -0.000009 
57.314919 405.651001 64.802368 -0.173617 2.218303 0.000034 
64.338898 406.200867 56.508804 -0.012428 0.158804 0.000006 
25.003345 403.122131 63.183121 -0.191329 2.444733 0.000097 
264.153717 421.852936 64.247124 -0.057173 0.731801 0.001932 
212.940689 417.831085 72.101288 -0.114093 1.451730 0.000267 
158.227341 413.554260 67.222214 -0.026468 0.339560 -0.000834 
16.325262 402.443176 72.250000 -0.012261 0.156659 -0.000047 
385.197357 431.311432 78.500000 -0.002881 0.036814 0.000000 
385.197357 431.311432 46.500000 1.566008 0.122561 0.000000 
-510.197815 -360.000000 46.500000 -0.000000 -0.000001 -0.045365 
-510.197815 -367.000000 46.500000 -0.000000 0.000000 -1.570893 
-363.633240 -359.981110 79.930069 -0.000088 0.082473 0.000608 
-388.489044 -360.160156 63.206802 -0.002782 2.655323 0.014154 
-433.269623 -359.999969 72.450882 0.094366 0.626797 0.113228 
-475.938293 -366.988617 70.080856 -0.047153 -0.179244 -0.394018 
-465.305664 -360.040283 65.647545 -0.260972 -0.992042 -2.180730 
-440.345673 -366.995178 56.417980 0.007772 -0.246293 0.206612 
-392.946198 -366.993988 63.408924 -0.036195 -0.103277 0.245425 
-520.214233 -366.985840 79.791451 0.000002 -0.073725 0.000198 
-363.728302 -366.981689 79.909584 0.006563 -0.086355 -0.070841 
-526.745239 -364.017761 58.080925 -0.063990 -0.867094 0.131856 
-356.444550 -367.014923 46.499977 -0.000116 -0.922333 0.000892 
-475.871521 -365.098114 60.015812 0.008653 -0.594687 0.061707 
-446.041565 -362.321442 64.379906 0.110658 -0.816071 0.558206 
-433.597961 -367.000702 73.459717 -0.648854 -0.093035 -0.856790 
-419.846222 -360.188202 62.305672 -0.007149 0.012010 0.248400 
-499.872955 -364.890259 65.384445 0.027692 -0.185221 -0.223884 
-512.551453 -358.942230 82.741776 0.001800 0.745630 -0.920965 
-510.181244 -354.310028 86.496727 -0.000041 0.019365 -0.028432 
-520.694580 -360.119598 76.078049 0.002343 0.658362 -0.119184 
-362.052887 -358.209900 83.628899 0.237784 1.601260 -0.868369 
-515.420410 -345.716919 93.587669 -0.014731 -0.258904 1.177398 
-510.155090 -361.959564 90.081871 -0.022373 -0.393224 1.788236 
-346.734863 -362.271088 89.664474 0.001029 -0.371942 0.680332 
-354.807037 -355.293762 93.491226 0.003071 -1.110591 2.031422 
-510.955231 -366.172668 83.593758 0.000024 -0.030152 0.007576 
-510.197815 -342.000000 86.500000 -0.736022 2.078344 0.547584 
-380.317352 -312.385376 93.500160 -0.249354 1.604022 -0.116826 
-200.822372 -226.682556 93.500107 -0.087368 0.104383 -0.029633 
-299.671936 -284.463593 93.500122 -0.380841 0.749355 -0.033534 
-160.657318 -195.052460 86.498665 -0.000023 0.055741 0.000001 
